# .PCD v0.7 - Point Cloud Data file format
VERSION 0.7
FIELDS x y z rgb
SIZE 4 4 4 4
TYPE F F F U
COUNT 1 1 1 1
WIDTH 145
HEIGHT 1
VIEWPOINT 0 0 0 1 0 0 0
POINTS 145
DATA ascii
0.28760314 -0.47485635 0.60999966 7895160
0.36511788 -0.43500096 0.60999918 7895160
0.38496736 -0.43493998 0.6099993 7895160
0.3947154 -0.43495774 0.60999918 7895160
0.40466955 -0.43502972 0.60999912 7895160
0.41490421 -0.43496156 0.60999918 7895160
0.42535448 -0.43500137 0.60999924 7895160
0.43509352 -0.43490189 0.60999924 7895160
0.44487122 -0.43506998 0.6099993 7895160
0.45497161 -0.43509763 0.60999924 7895160
0.46527094 -0.43500781 0.6099993 7829367
0.44493538 -0.40490121 0.60999918 7829367
0.45499182 -0.40492964 0.60999924 7829367
0.46522826 -0.40495175 0.6099993 7829367
0.47494161 -0.4049001 0.60999948 7829367
0.48460254 -0.40489876 0.60999954 7829367
0.49529779 -0.40505314 0.60999942 7829367
0.50540781 -0.40489376 0.60999978 7829367
0.51470506 -0.40493956 0.60999984 7829367
0.52507597 -0.40491068 0.60999995 7829367
0.53560972 -0.40504169 0.6099999 7829367
0.54544348 -0.4049243 0.60999984 7829367
0.37533456 -0.37490273 0.60999876 7763574
0.38496763 -0.37510839 0.60999876 7763574
0.39481118 -0.3749679 0.60999876 7763574
0.40482125 -0.37509114 0.60999882 7829367
0.41497263 -0.37493095 0.60999882 7829367
0.42529583 -0.37507486 0.60999888 7829367
0.43511242 -0.37497339 0.60999894 7829367
0.44495642 -0.37498754 0.60999918 7829367
0.45503572 -0.37487978 0.6099993 7829367
0.46524924 -0.37503403 0.6099993 7829367
0.47494155 -0.37512073 0.60999948 7829367
0.48453161 -0.3750079 0.60999936 7829367
0.53567231 -0.3547731 0.60999984 7829367
0.54544342 -0.35508841 0.6099999 7829367
0.3299984 -0.34484977 0.60405147 0
0.33493608 -0.3450169 0.60999852 7434609
0.34533954 -0.3451263 0.60999864 7763574
0.35517821 -0.34494564 0.6099987 7763574
0.36514717 -0.3449614 0.6099987 7763574
0.37533453 -0.34497911 0.60999876 7763574
0.38491291 -0.34507367 0.60999876 7763574
0.39484265 -0.34502697 0.60999876 7763574
0.40476453 -0.34500045 0.60999882 7763574
0.41490462 -0.34486359 0.60999882 7763574
0.42529589 -0.3450501 0.60999888 7763574
0.50535029 -0.32498482 0.60999978 7829367
0.51476395 -0.32505643 0.60999984 7829367
0.52145523 -0.32499534 0.60927558 7566452
0.3299984 -0.31514364 0.60405171 0
0.33502999 -0.31497636 0.60999858 7500402
0.34536657 -0.31503952 0.60999864 7763574
0.35509408 -0.31507555 0.6099987 7763574
0.36514699 -0.315117 0.60999876 7763574
0.37533453 -0.31484988 0.60999876 7763574
0.3849315 -0.31512937 0.6099022 7763574
0.39481094 -0.31498206 0.60999876 7763574
0.40476459 -0.31503037 0.60999882 7763574
0.48446202 -0.29508013 0.60999936 7763574
0.49522343 -0.29490384 0.60999948 7763574
0.50546557 -0.29506955 0.60999978 7763574
0.5147053 -0.29492322 0.60999978 7763574
0.5222429 -0.29509345 0.60999972 7829367
0.32999837 -0.28497559 0.60405141 0
0.33497021 -0.28502417 0.60999852 7500402
0.34525642 -0.28505054 0.60999864 7763574
0.35499787 -0.28506798 0.60991365 7566195
0.36514711 -0.28507051 0.6099987 7763574
0.37533444 -0.2849265 0.60999876 7763574
0.38496763 -0.28487864 0.60999876 7763574
0.42537618 -0.26497996 0.60999888 7763574
0.43492568 -0.26506731 0.60999888 7763574
0.44485202 -0.26489612 0.60999918 7763574
0.45503557 -0.26496792 0.6099993 7763574
0.46518031 -0.2650592 0.6099993 7763574
0.47477928 -0.26494703 0.60999942 7763574
0.48457965 -0.26492605 0.60999936 7763574
0.49534571 -0.26500666 0.60999948 7763574
0.50540751 -0.26500717 0.60999978 7763574
0.5147053 -0.26511076 0.60999978 7763574
0.52420825 -0.26489246 0.60999984 7566195
0.32999843 -0.25481117 0.60420269 0
0.33505332 -0.25507382 0.60999852 7500402
0.34539506 -0.25496179 0.60999864 7763574
0.49539381 -0.23497406 0.60999954 7763574
0.50546736 -0.23478135 0.60999978 7763574
0.5147053 -0.23497328 0.60999978 7763574
0.5251022 -0.23509844 0.6099999 7763574
0.53207624 -0.23378205 0.60999978 6974058
0.3299984 -0.22510016 0.60405147 0
0.33510047 -0.22503471 0.60999852 7500402
0.34533948 -0.2249759 0.60999864 7763574
0.3552072 -0.22497669 0.6099987 7763574
0.36514723 -0.22517867 0.60999876 7763574
0.37533453 -0.22487317 0.60999876 7763574
0.38493016 -0.22505021 0.60999876 7763574
0.394779 -0.22494565 0.60999876 7763574
0.40472561 -0.22512658 0.60999882 7763574
0.51470524 -0.17486128 0.60999984 7763574
0.52512759 -0.17504519 0.60999995 7763574
0.53567207 -0.17495637 0.60999984 7763574
0.54258025 -0.17424756 0.60999984 7105645
0.74324948 -0.17256157 0.60539579 7829367
0.82153577 -0.17361753 0.60498083 7829367
0.32999837 -0.16499954 0.6038999 0
0.33500683 -0.16496186 0.60999852 7434609
0.34533933 -0.16490029 0.60999864 7763574
0.35512215 -0.1650407 0.6099987 7763574
0.36514726 -0.16508479 0.6099987 7763574
0.37527326 -0.16492072 0.60999876 7763574
0.38496771 -0.16497357 0.60999876 7763574
0.39477932 -0.16495632 0.60999876 7763574
0.40478352 -0.16506167 0.60999876 7763574
0.41503915 -0.16510168 0.60999882 7763574
0.42529535 -0.16490315 0.60999882 7763574
0.43503031 -0.16500248 0.60999888 7763574
0.44487092 -0.16497537 0.60999918 7763574
0.45494822 -0.16507709 0.60999918 7763574
0.46518004 -0.16505076 0.60999924 7763574
0.47467262 -0.16496773 0.60999942 7763574
0.48446178 -0.16497989 0.60999936 7763574
0.49525014 -0.1650852 0.60999936 7763574
0.34528393 -0.14497437 0.60999864 7697781
0.35515058 -0.14503075 0.6099987 7697781
0.36506084 -0.14508609 0.6099987 7763574
0.3753345 -0.14493944 0.60999876 7763574
0.38487625 -0.14507143 0.60999876 7763574
0.39471564 -0.14492469 0.60999876 7763574
0.40460935 -0.14504293 0.60999876 7763574
0.41483763 -0.14491007 0.60999882 7763574
0.42511007 -0.14501318 0.60999882 7763574
0.43486682 -0.14506693 0.60999882 7763574
0.44476867 -0.14499441 0.60999918 7763574
0.45494822 -0.14504778 0.60999918 7763574
0.46520433 -0.14497381 0.60999924 7763574
0.4748866 -0.14505884 0.60999942 7763574
0.48464942 -0.14496514 0.60999936 7763574
0.49541938 -0.14502163 0.60999954 7763574
0.50552708 -0.14505516 0.60999978 7763574
0.51470536 -0.14488775 0.60999978 7763574
0.52502477 -0.14508699 0.60999995 7763574
0.53560984 -0.14496189 0.60999984 7763574
0.54544342 -0.14511433 0.6099999 7763574
0.34542304 -0.12505008 0.60999864 7697781
